1.323972606670304231e+01 3.623186654504388571e+01 5.725692003965377808e+00 -3.722355961799621582e-01 -5.580722689628601074e-01 -7.416172027587890625e-01
1.328047344472452096e+01 3.658354062493890524e+01 7.388420194387435913e+00 -3.543420732021331787e-01 -6.110989451408386230e-01 -7.078134417533874512e-01
1.332122082274599961e+01 3.693521470483392477e+01 9.051148384809494019e+00 -4.031003117561340332e-01 -5.543158650398254395e-01 -7.281785011291503906e-01
1.336196820076747827e+01 3.728688878472894430e+01 1.071387657523155212e+01 -4.337998330593109131e-01 -5.164468288421630859e-01 -7.383091449737548828e-01
1.340271557878895692e+01 3.763856286462396383e+01 1.237660476565361023e+01 -6.852694749832153320e-01 -3.406029939651489258e-01 -6.437354683876037598e-01
1.344346295681043557e+01 3.799023694451898336e+01 1.403933295607566833e+01 -7.712969779968261719e-01 -2.794193029403686523e-01 -5.718616843223571777e-01
1.348421033483191422e+01 3.834191102441400290e+01 1.570206114649772644e+01 -7.665188908576965332e-01 -2.980575263500213623e-01 -5.688677430152893066e-01
1.352495771285339288e+01 3.869358510430902243e+01 1.736478933691978455e+01 -7.532556056976318359e-01 -2.859813272953033447e-01 -5.923011898994445801e-01
1.271001007157515517e+01 3.334165365155786276e+01 -1.624542945623397827e+01 6.670229136943817139e-02 -4.583134949207305908e-01 -8.862841725349426270e-01
1.275075744959663382e+01 3.369332773145288229e+01 -1.458270126581192017e+01 -4.475498944520950317e-02 -3.366113603115081787e-01 -9.405795335769653320e-01
1.279150482761811247e+01 3.404500181134790182e+01 -1.291997307538986206e+01 -6.666821241378784180e-02 -3.080220520496368408e-01 -9.490404725074768066e-01
1.283225220563959112e+01 3.439667589124292135e+01 -1.125724488496780396e+01 -1.265604794025421143e-01 -2.118126004934310913e-01 -9.690809249877929688e-01
1.287299958366106978e+01 3.474834997113794088e+01 -9.594516694545745850e+00 -1.959171146154403687e-01 -1.924488693475723267e-01 -9.615507721900939941e-01
1.291374696168254843e+01 3.510002405103296041e+01 -7.931788504123687744e+00 -2.911876142024993896e-01 -2.115675210952758789e-01 -9.329785108566284180e-01
1.295449433970402708e+01 3.545169813092797995e+01 -6.269060313701629639e+00 -3.111447393894195557e-01 -2.029107809066772461e-01 -9.284483194351196289e-01
1.299524171772550574e+01 3.580337221082299948e+01 -4.606332123279571533e+00 -3.508485853672027588e-01 -2.648025155067443848e-01 -8.982120752334594727e-01
1.303598909574698439e+01 3.615504629071801901e+01 -2.943603932857513428e+00 -3.779412508010864258e-01 -3.044799566268920898e-01 -8.743296861648559570e-01
1.307673647376846304e+01 3.650672037061303854e+01 -1.280875742435455322e+00 -3.875530064105987549e-01 -3.262763917446136475e-01 -8.621753454208374023e-01
1.311748385178994170e+01 3.685839445050805807e+01 3.818524479866027832e-01 -4.268324375152587891e-01 -4.091770350933074951e-01 -8.064664602279663086e-01
1.315823122981142035e+01 3.721006853040307760e+01 2.044580638408660889e+00 -4.119580090045928955e-01 -4.410635828971862793e-01 -7.973414659500122070e-01
1.319897860783289900e+01 3.756174261029809713e+01 3.707308828830718994e+00 -4.302952587604522705e-01 -4.794095158576965332e-01 -7.648610472679138184e-01
1.323972598585437765e+01 3.791341669019311666e+01 5.370037019252777100e+00 -4.219051003456115723e-01 -4.984326660633087158e-01 -7.573380470275878906e-01
1.328047336387585631e+01 3.826509077008813620e+01 7.032765209674835205e+00 -4.050683379173278809e-01 -5.242296457290649414e-01 -7.490679621696472168e-01
1.332122074189733496e+01 3.861676484998315573e+01 8.695493400096893311e+00 -4.385010898113250732e-01 -5.284557342529296875e-01 -7.269465327262878418e-01
1.336196811991881361e+01 3.896843892987817526e+01 1.035822159051895142e+01 -4.471246600151062012e-01 -5.265654921531677246e-01 -7.230548858642578125e-01
1.340271549794029227e+01 3.932011300977319479e+01 1.202094978094100952e+01 -6.969727277755737305e-01 -3.154769241809844971e-01 -6.439747214317321777e-01
1.344346287596177092e+01 3.967178708966821432e+01 1.368367797136306763e+01 -8.060524463653564453e-01 -2.213442474603652954e-01 -5.488954186439514160e-01
1.348421025398324957e+01 4.002346116956323385e+01 1.534640616178512573e+01 -7.877123355865478516e-01 -2.549342215061187744e-01 -5.608189105987548828e-01
1.352495763200472823e+01 4.037513524945825338e+01 1.700913435220718384e+01 -7.277596592903137207e-01 -3.441513180732727051e-01 -5.932334065437316895e-01
1.356570501002620688e+01 4.072680932935327291e+01 1.867186254262924194e+01 -7.312735319137573242e-01 -3.932650089263916016e-01 -5.572984814643859863e-01
1.262851523468353321e+01 3.431985563691705465e+01 -1.992654082179069519e+01 2.371207810938358307e-02 -5.413350462913513184e-01 -8.404725193977355957e-01
1.266926261270501186e+01 3.467152971681207418e+01 -1.826381263136863708e+01 -2.351076342165470123e-02 -4.853739142417907715e-01 -8.739904761314392090e-01
1.271000999072649051e+01 3.502320379670709372e+01 -1.660108444094657898e+01 -7.740886509418487549e-02 -3.450244367122650146e-01 -9.353961348533630371e-01
1.275075736874796917e+01 3.537487787660211325e+01 -1.493835625052452087e+01 -9.023075550794601440e-02 -2.703646421432495117e-01 -9.585204124450683594e-01
1.279150474676944782e+01 3.572655195649713278e+01 -1.327562806010246277e+01 -9.724324941635131836e-02 -2.579922080039978027e-01 -9.612407088279724121e-01
1.283225212479092647e+01 3.607822603639215231e+01 -1.161289986968040466e+01 -1.649600267410278320e-01 -2.002077400684356689e-01 -9.657664895057678223e-01
1.287299950281240513e+01 3.642990011628717184e+01 -9.950171679258346558e+00 -2.038832753896713257e-01 -1.860807687044143677e-01 -9.611480236053466797e-01
1.291374688083388378e+01 3.678157419618219137e+01 -8.287443488836288452e+00 -2.953762710094451904e-01 -2.246429920196533203e-01 -9.285948276519775391e-01
1.295449425885536243e+01 3.713324827607721090e+01 -6.624715298414230347e+00 -3.163289427757263184e-01 -2.104143202304840088e-01 -9.250198602676391602e-01
1.299524163687684108e+01 3.748492235597223043e+01 -4.961987107992172241e+00 -3.477301895618438721e-01 -2.512186467647552490e-01 -9.033122062683105469e-01
1.303598901489831974e+01 3.783659643586724997e+01 -3.299258917570114136e+00 -3.915002942085266113e-01 -2.812649607658386230e-01 -8.761377930641174316e-01
1.307673639291979839e+01 3.818827051576226950e+01 -1.636530727148056030e+00 -3.882651627063751221e-01 -3.011019229888916016e-01 -8.709694743156433105e-01
1.311748377094127704e+01 3.853994459565728903e+01 2.619746327400207520e-02 -4.265119731426239014e-01 -3.859005272388458252e-01 -8.180270791053771973e-01
1.315823114896275570e+01 3.889161867555230856e+01 1.688925653696060181e+00 -4.112656414508819580e-01 -4.085780680179595947e-01 -8.148156404495239258e-01
1.319897852698423435e+01 3.924329275544732809e+01 3.351653844118118286e+00 -4.286742210388183594e-01 -4.427787959575653076e-01 -7.875185012817382812e-01
1.323972590500571300e+01 3.959496683534234762e+01 5.014382034540176392e+00 -4.285512566566467285e-01 -4.657989442348480225e-01 -7.741932868957519531e-01
1.328047328302719166e+01 3.994664091523736715e+01 6.677110224962234497e+00 -4.133758246898651123e-01 -5.015218257904052734e-01 -7.599975466728210449e-01
1.332122066104867031e+01 4.029831499513238668e+01 8.339838415384292603e+00 -4.318120479583740234e-01 -5.400276184082031250e-01 -7.224323749542236328e-01
1.336196803907014896e+01 4.064998907502740622e+01 1.000256660580635071e+01 -4.395626783370971680e-01 -5.397680401802062988e-01 -7.179381251335144043e-01
1.340271541709162761e+01 4.100166315492242575e+01 1.166529479622840881e+01 -5.897137522697448730e-01 -4.348812699317932129e-01 -6.805262565612792969e-01
1.344346279511310627e+01 4.135333723481744528e+01 1.332802298665046692e+01 -7.180981040000915527e-01 -3.504282832145690918e-01 -6.012778282165527344e-01
1.348421017313458492e+01 4.170501131471246481e+01 1.499075117707252502e+01 -7.252177000045776367e-01 -3.559089601039886475e-01 -5.893962979316711426e-01
1.352495755115606357e+01 4.205668539460748434e+01 1.665347936749458313e+01 -6.889618635177612305e-01 -4.001148641109466553e-01 -6.043505668640136719e-01
1.262851515383486856e+01 3.600140578206628561e+01 -2.028219580650329590e+01 4.520977661013603210e-02 -4.015272557735443115e-01 -9.147305488586425781e-01
1.266926253185634721e+01 3.635307986196130514e+01 -1.861946761608123779e+01 2.470798417925834656e-02 -3.770593106746673584e-01 -9.258595108985900879e-01
1.271000990987782586e+01 3.670475394185632467e+01 -1.695673942565917969e+01 -6.567679345607757568e-02 -2.310733497142791748e-01 -9.707171320915222168e-01
1.275075728789930452e+01 3.705642802175134420e+01 -1.529401123523712158e+01 -7.227680087089538574e-02 -1.896519362926483154e-01 -9.791874885559082031e-01
1.279150466592078317e+01 3.740810210164636374e+01 -1.363128304481506348e+01 -9.860537201166152954e-02 -1.714665442705154419e-01 -9.802429080009460449e-01
1.283225204394226182e+01 3.775977618154138327e+01 -1.196855485439300537e+01 -1.608789712190628052e-01 -1.667601168155670166e-01 -9.727841615676879883e-01
1.287299942196374047e+01 3.811145026143640280e+01 -1.030582666397094727e+01 -1.945553570985794067e-01 -1.697225123643875122e-01 -9.660965204238891602e-01
1.291374679998521913e+01 3.846312434133142233e+01 -8.643098473548889160e+00 -2.950427830219268799e-01 -1.647166013717651367e-01 -9.411792159080505371e-01
1.295449417800669778e+01 3.881479842122644186e+01 -6.980370283126831055e+00 -3.171809911727905273e-01 -1.472111791372299194e-01 -9.368698000907897949e-01
1.299524155602817643e+01 3.916647250112146139e+01 -5.317642092704772949e+00 -3.440201282501220703e-01 -1.938995420932769775e-01 -9.187235832214355469e-01
1.303598893404965509e+01 3.951814658101648092e+01 -3.654913902282714844e+00 -3.751052021980285645e-01 -2.328785359859466553e-01 -8.972533941268920898e-01
1.307673631207113374e+01 3.986982066091150045e+01 -1.992185711860656738e+00 -3.791303932666778564e-01 -2.516610622406005859e-01 -8.904644250869750977e-01
1.311748369009261239e+01 4.022149474080651999e+01 -3.294575214385986328e-01 -4.243031740188598633e-01 -3.316514492034912109e-01 -8.425996303558349609e-01
1.315823106811409104e+01 4.057316882070153952e+01 1.333270668983459473e+00 -4.244561791419982910e-01 -3.385097980499267578e-01 -8.397905230522155762e-01
1.319897844613556970e+01 4.092484290059655905e+01 2.995998859405517578e+00 -4.538257420063018799e-01 -4.080972671508789062e-01 -7.921482920646667480e-01
1.323972582415704835e+01 4.127651698049157858e+01 4.658727049827575684e+00 -4.542331993579864502e-01 -4.387551248073577881e-01 -7.753490805625915527e-01
1.328047320217852700e+01 4.162819106038659811e+01 6.321455240249633789e+00 -4.293856024742126465e-01 -4.713216423988342285e-01 -7.703790664672851562e-01
1.332122058020000566e+01 4.197986514028161764e+01 7.984183430671691895e+00 -3.902240097522735596e-01 -4.918779730796813965e-01 -7.783194780349731445e-01
1.336196795822148431e+01 4.233153922017663717e+01 9.646911621093750000e+00 -3.860796689987182617e-01 -5.101171731948852539e-01 -7.685850262641906738e-01
1.340271533624296296e+01 4.268321330007165670e+01 1.130963981151580811e+01 -4.401435554027557373e-01 -4.890458583831787109e-01 -7.530655860900878906e-01
1.344346271426444162e+01 4.303488737996667624e+01 1.297236800193786621e+01 -4.935699403285980225e-01 -4.523924291133880615e-01 -7.427851557731628418e-01
1.348421009228592027e+01 4.338656145986169577e+01 1.463509619235992432e+01 -4.836422204971313477e-01 -4.498490393161773682e-01 -7.508169412612915039e-01
1.262851507298620390e+01 3.768295592721551657e+01 -2.063785079121589661e+01 -2.074918337166309357e-02 -4.041108787059783936e-01 -9.144746661186218262e-01
1.266926245100768256e+01 3.803463000711053610e+01 -1.897512260079383850e+01 -3.242781013250350952e-02 -4.059336185455322266e-01 -9.133270978927612305e-01
1.271000982902916121e+01 3.838630408700555563e+01 -1.731239441037178040e+01 -1.208460927009582520e-01 -2.472101449966430664e-01 -9.613965153694152832e-01
1.275075720705063986e+01 3.873797816690057516e+01 -1.564966621994972229e+01 -1.318839341402053833e-01 -2.111334800720214844e-01 -9.685190916061401367e-01
1.279150458507211852e+01 3.908965224679559469e+01 -1.398693802952766418e+01 -1.338929235935211182e-01 -1.737267822027206421e-01 -9.756493568420410156e-01
1.283225196309359717e+01 3.944132632669061422e+01 -1.232420983910560608e+01 -2.042780220508575439e-01 -1.796452850103378296e-01 -9.622879624366760254e-01
1.287299934111507582e+01 3.979300040658563375e+01 -1.066148164868354797e+01 -2.201702594757080078e-01 -1.853010356426239014e-01 -9.576995968818664551e-01
1.291374671913655447e+01 4.014467448648065329e+01 -8.998753458261489868e+00 -2.758744657039642334e-01 -1.873512119054794312e-01 -9.427581429481506348e-01
1.295449409715803313e+01 4.049634856637567282e+01 -7.336025267839431763e+00 -2.888538837432861328e-01 -1.687850356101989746e-01 -9.423773288726806641e-01
1.299524147517951178e+01 4.084802264627069235e+01 -5.673297077417373657e+00 -3.272730112075805664e-01 -1.902458071708679199e-01 -9.255802631378173828e-01
1.303598885320099043e+01 4.119969672616571188e+01 -4.010568886995315552e+00 -3.824053108692169189e-01 -1.911487430334091187e-01 -9.040068387985229492e-01
1.307673623122246909e+01 4.155137080606073141e+01 -2.347840696573257446e+00 -3.888804912567138672e-01 -2.173445522785186768e-01 -8.952838778495788574e-01
1.311748360924394774e+01 4.190304488595575094e+01 -6.851125061511993408e-01 -4.133667349815368652e-01 -3.049223124980926514e-01 -8.579919934272766113e-01
1.315823098726542639e+01 4.225471896585077047e+01 9.776156842708587646e-01 -4.182832837104797363e-01 -2.873378396034240723e-01 -8.616704344749450684e-01
1.319897836528690505e+01 4.260639304574579000e+01 2.640343874692916870e+00 -4.627567529678344727e-01 -3.437669873237609863e-01 -8.171172142028808594e-01
1.323972574330838370e+01 4.295806712564080954e+01 4.303072065114974976e+00 -4.616917371749877930e-01 -3.649566173553466797e-01 -8.084846138954162598e-01
1.328047312132986235e+01 4.330974120553582907e+01 5.965800255537033081e+00 -4.701331853866577148e-01 -3.830897510051727295e-01 -7.951207756996154785e-01
1.332122049935134100e+01 4.366141528543084860e+01 7.628528445959091187e+00 -4.114870727062225342e-01 -4.150260686874389648e-01 -8.114381432533264160e-01
1.336196787737281966e+01 4.401308936532586813e+01 9.291256636381149292e+00 -3.708381950855255127e-01 -4.298744499683380127e-01 -8.232174515724182129e-01
1.262851499213753925e+01 3.936450607236474752e+01 -2.099350577592849731e+01 -1.090933158993721008e-01 -5.019721984863281250e-01 -8.579758405685424805e-01
1.266926237015901791e+01 3.971618015225976706e+01 -1.933077758550643921e+01 -1.179833188652992249e-01 -4.739280343055725098e-01 -8.726236820220947266e-01
1.271000974818049656e+01 4.006785423215478659e+01 -1.766804939508438110e+01 -2.009389996528625488e-01 -3.512592315673828125e-01 -9.144617915153503418e-01
1.275075712620197521e+01 4.041952831204980612e+01 -1.600532120466232300e+01 -2.489704638719558716e-01 -2.946950495243072510e-01 -9.225879311561584473e-01
1.279150450422345386e+01 4.077120239194482565e+01 -1.434259301424026489e+01 -2.299485355615615845e-01 -2.555378675460815430e-01 -9.390548467636108398e-01
1.283225188224493252e+01 4.112287647183984518e+01 -1.267986482381820679e+01 -1.968914121389389038e-01 -3.098839223384857178e-01 -9.301643371582031250e-01
1.287299926026641117e+01 4.147455055173486471e+01 -1.101713663339614868e+01 -1.879703849554061890e-01 -3.056352734565734863e-01 -9.334099292755126953e-01
1.291374663828788982e+01 4.182622463162988424e+01 -9.354408442974090576e+00 -2.086614519357681274e-01 -2.095073014497756958e-01 -9.552837610244750977e-01
1.295449401630936848e+01 4.217789871152490377e+01 -7.691680252552032471e+00 -2.313493639230728149e-01 -1.919806152582168579e-01 -9.537405371665954590e-01
1.299524139433084713e+01 4.252957279141992331e+01 -6.028952062129974365e+00 -2.553261220455169678e-01 -9.385096281766891479e-02 -9.622892141342163086e-01
1.303598877235232578e+01 4.288124687131494284e+01 -4.366223871707916260e+00 -2.138318568468093872e-01 -1.204695925116539001e-01 -9.694136977195739746e-01
1.307673615037380443e+01 4.323292095120996237e+01 -2.703495681285858154e+00 -1.576944589614868164e-01 -1.479180157184600830e-01 -9.763466715812683105e-01
1.311748352839528309e+01 4.358459503110498190e+01 -1.040767490863800049e+00 -8.743025362491607666e-02 -1.525455564260482788e-01 -9.844216108322143555e-01
1.283225180139626787e+01 4.280442661698907614e+01 -1.303551980853080750e+01 -2.491758614778518677e-01 -2.360756099224090576e-01 -9.392442107200622559e-01
1.287299917941774652e+01 4.315610069688409567e+01 -1.137279161810874939e+01 -2.288641333580017090e-01 -1.363727599382400513e-01 -9.638587832450866699e-01
1.291374655743922517e+01 4.350777477677911520e+01 -9.710063427686691284e+00 -1.737945824861526489e-01 -7.272668182849884033e-02 -9.820928573608398438e-01
1.295449393546070382e+01 4.385944885667413473e+01 -8.047335237264633179e+00 -2.809682190418243408e-01 -7.926394045352935791e-02 -9.564381837844848633e-01
1.299524131348218248e+01 4.421112293656915426e+01 -6.384607046842575073e+00 -2.314458787441253662e-01 -9.507234394550323486e-02 -9.681911468505859375e-01
1.315136673111013010e+01 1.331325117871165276e+01 8.009953445196151733e+01 -2.978288568556308746e-03 4.153846800327301025e-01 -9.096409678459167480e-01
1.319211410913160876e+01 1.366492525860667229e+01 8.176226264238357544e+01 -1.701501607894897461e-01 4.450054168701171875e-01 -8.792150616645812988e-01
1.302912451619702949e+01 1.393977908417582512e+01 7.475569489598274231e+01 5.059704184532165527e-01 2.703694067895412445e-02 -8.621270060539245605e-01
1.306987189421850815e+01 1.429145316407084465e+01 7.641842308640480042e+01 3.854350149631500244e-01 4.162037372589111328e-02 -9.217958450317382812e-01
1.311061927223998680e+01 1.464312724396586418e+01 7.808115127682685852e+01 3.676734268665313721e-01 9.982938319444656372e-02 -9.245811700820922852e-01
1.315136665026146545e+01 1.499480132386088371e+01 7.974387946724891663e+01 1.378646045923233032e-01 2.170033901929855347e-01 -9.663864970207214355e-01
1.319211402828294410e+01 1.534647540375590324e+01 8.140660765767097473e+01 2.940066158771514893e-02 2.422340512275695801e-01 -9.697722792625427246e-01
1.290688230128392888e+01 1.456630698963999748e+01 6.941185534000396729e+01 6.305853128433227539e-01 2.003177553415298462e-01 -7.498232722282409668e-01
1.294762967930540754e+01 1.491798106953501701e+01 7.107458353042602539e+01 5.890046358108520508e-01 1.741861850023269653e-01 -7.891341447830200195e-01
1.298837705732688619e+01 1.526965514943003654e+01 7.273731172084808350e+01 5.359673500061035156e-01 1.770149022340774536e-01 -8.254724144935607910e-01
1.302912443534836484e+01 1.562132922932505608e+01 7.440003991127014160e+01 5.100359320640563965e-01 1.953944861888885498e-01 -8.376660943031311035e-01
1.306987181336984349e+01 1.597300330922007561e+01 7.606276810169219971e+01 3.987841010093688965e-01 2.673078775405883789e-01 -8.772215843200683594e-01
1.311061919139132215e+01 1.632467738911509514e+01 7.772549629211425781e+01 3.293909430503845215e-01 2.490639239549636841e-01 -9.107517600059509277e-01
1.315136656941280080e+01 1.667635146901011467e+01 7.938822448253631592e+01 1.919847279787063599e-01 2.374424785375595093e-01 -9.522410035133361816e-01
1.319211394743427945e+01 1.702802554890513420e+01 8.105095267295837402e+01 1.329376846551895142e-01 2.212155312299728394e-01 -9.661217331886291504e-01
1.323286132545575811e+01 1.737969962880015373e+01 8.271368086338043213e+01 3.357850760221481323e-02 2.029818296432495117e-01 -9.786066412925720215e-01
1.286613484241378558e+01 1.589618305489420891e+01 6.739347216486930847e+01 6.584393978118896484e-01 1.913646161556243896e-01 -7.278991341590881348e-01
1.290688222043526423e+01 1.624785713478922844e+01 6.905620035529136658e+01 6.360827684402465820e-01 1.916196644306182861e-01 -7.474493980407714844e-01
1.294762959845674288e+01 1.659953121468424797e+01 7.071892854571342468e+01 5.671601891517639160e-01 2.141814380884170532e-01 -7.952708005905151367e-01
1.298837697647822154e+01 1.695120529457926750e+01 7.238165673613548279e+01 5.325658321380615234e-01 2.388207316398620605e-01 -8.119964599609375000e-01
1.302912435449970019e+01 1.730287937447428703e+01 7.404438492655754089e+01 5.251088142395019531e-01 2.560435831546783447e-01 -8.116049170494079590e-01
1.306987173252117884e+01 1.765455345436930656e+01 7.570711311697959900e+01 4.932870566844940186e-01 3.071928024291992188e-01 -8.138184547424316406e-01
1.311061911054265749e+01 1.800622753426432610e+01 7.736984130740165710e+01 4.582629799842834473e-01 3.228860795497894287e-01 -8.280939459800720215e-01
1.315136648856413615e+01 1.835790161415934563e+01 7.903256949782371521e+01 4.245450496673583984e-01 4.339418113231658936e-01 -7.946420311927795410e-01
1.319211386658561480e+01 1.870957569405436516e+01 8.069529768824577332e+01 3.802605867385864258e-01 4.707741141319274902e-01 -7.960990071296691895e-01
1.323286124460709345e+01 1.906124977394938469e+01 8.235802587866783142e+01 1.812411695718765259e-01 4.528435766696929932e-01 -8.729743361473083496e-01
1.286613476156512093e+01 1.757773320004343987e+01 6.703781718015670776e+01 6.387708187103271484e-01 1.931886076927185059e-01 -7.447482943534851074e-01
1.290688213958659958e+01 1.792940727993845940e+01 6.870054537057876587e+01 6.267117857933044434e-01 1.810736805200576782e-01 -7.579212784767150879e-01
1.294762951760807823e+01 1.828108135983347893e+01 7.036327356100082397e+01 6.114931106567382812e-01 1.680380851030349731e-01 -7.732008099555969238e-01
1.298837689562955688e+01 1.863275543972849846e+01 7.202600175142288208e+01 5.651977658271789551e-01 1.798732876777648926e-01 -8.051068782806396484e-01
1.302912427365103554e+01 1.898442951962351799e+01 7.368872994184494019e+01 5.428056716918945312e-01 2.001065909862518311e-01 -8.156711459159851074e-01
1.306987165167251419e+01 1.933610359951853752e+01 7.535145813226699829e+01 5.171650052070617676e-01 2.743190526962280273e-01 -8.107338547706604004e-01
1.311061902969399284e+01 1.968777767941355705e+01 7.701418632268905640e+01 5.075285434722900391e-01 2.964883446693420410e-01 -8.090175390243530273e-01
1.315136640771547150e+01 2.003945175930857658e+01 7.867691451311111450e+01 4.738950431346893311e-01 3.520453572273254395e-01 -8.071478009223937988e-01
1.319211378573695015e+01 2.039112583920359612e+01 8.033964270353317261e+01 4.221532344818115234e-01 3.851394951343536377e-01 -8.206425905227661133e-01
1.323286116375842880e+01 2.074279991909861565e+01 8.200237089395523071e+01 2.193432897329330444e-01 3.083626925945281982e-01 -9.256353974342346191e-01
1.286613468071645627e+01 1.925928334519267082e+01 6.668216219544410706e+01 6.461001038551330566e-01 -1.068468317389488220e-01 -7.557369470596313477e-01
1.290688205873793493e+01 1.961095742508769035e+01 6.834489038586616516e+01 6.189080476760864258e-01 -6.410700827836990356e-02 -7.828429937362670898e-01
1.294762943675941358e+01 1.996263150498270988e+01 7.000761857628822327e+01 5.747052431106567383e-01 6.240953877568244934e-02 -8.159773349761962891e-01
1.298837681478089223e+01 2.031430558487772942e+01 7.167034676671028137e+01 5.277124643325805664e-01 1.068787872791290283e-01 -8.426722288131713867e-01
1.302912419280237089e+01 2.066597966477274895e+01 7.333307495713233948e+01 5.121726989746093750e-01 1.261197030544281006e-01 -8.495722413063049316e-01
1.306987157082384954e+01 2.101765374466776848e+01 7.499580314755439758e+01 5.070698857307434082e-01 1.818139702081680298e-01 -8.425104618072509766e-01
1.311061894884532819e+01 2.136932782456278801e+01 7.665853133797645569e+01 5.432868599891662598e-01 1.826642155647277832e-01 -8.194347023963928223e-01
1.315136632686680684e+01 2.172100190445780754e+01 7.832125952839851379e+01 5.543426275253295898e-01 1.584451943635940552e-01 -8.170675635337829590e-01
1.319211370488828550e+01 2.207267598435282707e+01 7.998398771882057190e+01 5.353029966354370117e-01 1.226520091295242310e-01 -8.357076048851013184e-01
1.323286108290976415e+01 2.242435006424784660e+01 8.164671590924263000e+01 4.728080034255981445e-01 6.086529418826103210e-02 -8.790608644485473633e-01
1.286613459986779162e+01 2.094083349034190178e+01 6.632650721073150635e+01 6.287536025047302246e-01 -1.104339584708213806e-01 -7.697228193283081055e-01
1.290688197788927027e+01 2.129250757023692131e+01 6.798923540115356445e+01 5.957129597663879395e-01 -1.026021838188171387e-01 -7.966172099113464355e-01
1.294762935591074893e+01 2.164418165013194084e+01 6.965196359157562256e+01 5.693644881248474121e-01 -4.798446223139762878e-02 -8.206835985183715820e-01
1.298837673393222758e+01 2.199585573002696037e+01 7.131469178199768066e+01 5.183688998222351074e-01 1.392505411058664322e-02 -8.550438284873962402e-01
1.302912411195370623e+01 2.234752980992197990e+01 7.297741997241973877e+01 4.915802776813507080e-01 4.689355567097663879e-02 -8.695687651634216309e-01
1.306987148997518489e+01 2.269920388981699944e+01 7.464014816284179688e+01 4.226992726325988770e-01 1.095779463648796082e-01 -8.996210694313049316e-01
1.311061886799666354e+01 2.305087796971201897e+01 7.630287635326385498e+01 4.620988667011260986e-01 1.067656874656677246e-01 -8.803781867027282715e-01
1.315136624601814219e+01 2.340255204960703850e+01 7.796560454368591309e+01 5.062176585197448730e-01 5.694874376058578491e-02 -8.605234026908874512e-01
1.319211362403962084e+01 2.375422612950205803e+01 7.962833273410797119e+01 4.812030494213104248e-01 1.897407695651054382e-02 -8.764037489891052246e-01
1.323286100206109950e+01 2.410590020939707756e+01 8.129106092453002930e+01 4.666160941123962402e-01 -1.529818028211593628e-02 -8.843276500701904297e-01
1.327360838008257815e+01 2.445757428929209709e+01 8.295378911495208740e+01 4.172278046607971191e-01 -6.169935688376426697e-02 -9.067051410675048828e-01
1.331435575810405680e+01 2.480924836918711662e+01 8.461651730537414551e+01 3.821541368961334229e-01 8.768485859036445618e-04 -9.240981936454772949e-01
1.286613451901912697e+01 2.262238363549113274e+01 6.597085222601890564e+01 6.609787344932556152e-01 1.938707940280437469e-02 -7.501540780067443848e-01
1.290688189704060562e+01 2.297405771538615227e+01 6.763358041644096375e+01 6.519612073898315430e-01 3.519344702363014221e-02 -7.574350833892822266e-01
1.294762927506208428e+01 2.332573179528117180e+01 6.929630860686302185e+01 5.929395556449890137e-01 1.602513901889324188e-02 -8.050875067710876465e-01
1.298837665308356293e+01 2.367740587517619133e+01 7.095903679728507996e+01 5.298933386802673340e-01 3.090240433812141418e-02 -8.475010991096496582e-01
1.302912403110504158e+01 2.402907995507121086e+01 7.262176498770713806e+01 4.835959076881408691e-01 2.832146547734737396e-02 -8.748330473899841309e-01
1.306987140912652023e+01 2.438075403496623039e+01 7.428449317812919617e+01 4.143114984035491943e-01 1.364062726497650146e-02 -9.100329875946044922e-01
1.311061878714799889e+01 2.473242811486124992e+01 7.594722136855125427e+01 4.654387235641479492e-01 -2.210676111280918121e-02 -8.848039507865905762e-01
1.315136616516947754e+01 2.508410219475626945e+01 7.760994955897331238e+01 5.014636516571044922e-01 -1.339205503463745117e-01 -8.547511100769042969e-01
1.319211354319095619e+01 2.543577627465128899e+01 7.927267774939537048e+01 4.939281046390533447e-01 -1.478578299283981323e-01 -8.568390607833862305e-01
1.323286092121243485e+01 2.578745035454630852e+01 8.093540593981742859e+01 4.557615816593170166e-01 -1.515739113092422485e-01 -8.771013617515563965e-01
1.327360829923391350e+01 2.613912443444132805e+01 8.259813413023948669e+01 3.394893705844879150e-01 -1.691387891769409180e-01 -9.252777695655822754e-01
1.331435567725539215e+01 2.649079851433634758e+01 8.426086232066154480e+01 3.126760423183441162e-01 -1.607782095670700073e-01 -9.361538887023925781e-01
1.335510305527687080e+01 2.684247259423136711e+01 8.592359051108360291e+01 3.742713630199432373e-01 -5.194922536611557007e-02 -9.258629679679870605e-01
1.294762919421341962e+01 2.500728194043040276e+01 6.894065362215042114e+01 6.117013692855834961e-01 2.357717417180538177e-02 -7.907373309135437012e-01
1.298837657223489828e+01 2.535895602032542229e+01 7.060338181257247925e+01 5.480737686157226562e-01 5.999551340937614441e-02 -8.342755436897277832e-01
1.302912395025637693e+01 2.571063010022044182e+01 7.226611000299453735e+01 5.034192204475402832e-01 7.429642230272293091e-02 -8.608420491218566895e-01
1.306987132827785558e+01 2.606230418011546135e+01 7.392883819341659546e+01 3.943423032760620117e-01 1.861827261745929718e-02 -9.187750220298767090e-01
1.311061870629933424e+01 2.641397826001048088e+01 7.559156638383865356e+01 4.067828357219696045e-01 -3.519907221198081970e-02 -9.128465652465820312e-01
1.315136608432081289e+01 2.676565233990550041e+01 7.725429457426071167e+01 4.214331209659576416e-01 -1.251888871192932129e-01 -8.981769680976867676e-01
1.319211346234229154e+01 2.711732641980051994e+01 7.891702276468276978e+01 4.100752472877502441e-01 -1.478922665119171143e-01 -8.999812602996826172e-01
1.323286084036377019e+01 2.746900049969553947e+01 8.057975095510482788e+01 3.727602958679199219e-01 -1.583536863327026367e-01 -9.143161177635192871e-01
1.327360821838524885e+01 2.782067457959055901e+01 8.224247914552688599e+01 2.616270780563354492e-01 -1.782957613468170166e-01 -9.485578536987304688e-01
1.331435559640672750e+01 2.817234865948557854e+01 8.390520733594894409e+01 2.431922852993011475e-01 -1.818731576204299927e-01 -9.527747035026550293e-01
1.335510297442820615e+01 2.852402273938059807e+01 8.556793552637100220e+01 2.314016968011856079e-01 -1.095496863126754761e-01 -9.666706323623657227e-01
1.339585035244968481e+01 2.887569681927561760e+01 8.723066371679306030e+01 1.148176491260528564e-01 -7.109007239341735840e-02 -9.908396601676940918e-01
1.294762911336475497e+01 2.668883208557963371e+01 6.858499863743782043e+01 6.508928537368774414e-01 -3.996514156460762024e-02 -7.581169009208679199e-01
1.298837649138623362e+01 2.704050616547465324e+01 7.024772682785987854e+01 5.970203876495361328e-01 -9.145795553922653198e-02 -7.969956994056701660e-01
1.302912386940771228e+01 2.739218024536967278e+01 7.191045501828193665e+01 5.552434325218200684e-01 -1.065415292978286743e-01 -8.248354792594909668e-01
1.306987124742919093e+01 2.774385432526469231e+01 7.357318320870399475e+01 4.313783049583435059e-01 -1.028467416763305664e-01 -8.962897658348083496e-01
1.311061862545066958e+01 2.809552840515971184e+01 7.523591139912605286e+01 4.254914224147796631e-01 -1.261116266250610352e-01 -8.961322307586669922e-01
1.315136600347214824e+01 2.844720248505473137e+01 7.689863958954811096e+01 3.760354816913604736e-01 -1.607633233070373535e-01 -9.125527143478393555e-01
1.319211338149362689e+01 2.879887656494975090e+01 7.856136777997016907e+01 3.538636267185211182e-01 -1.705823540687561035e-01 -9.196097850799560547e-01
1.323286075951510554e+01 2.915055064484477043e+01 8.022409597039222717e+01 3.284760117530822754e-01 -1.739758402109146118e-01 -9.283511638641357422e-01
1.327360813753658420e+01 2.950222472473978996e+01 8.188682416081428528e+01 2.529186308383941650e-01 -1.098063662648200989e-01 -9.612361192703247070e-01
1.331435551555806285e+01 2.985389880463480949e+01 8.354955235123634338e+01 2.451294511556625366e-01 -6.464397162199020386e-02 -9.673327207565307617e-01
1.335510289357954150e+01 3.020557288452982903e+01 8.521228054165840149e+01 2.029013633728027344e-01 -1.731348596513271332e-02 -9.790461659431457520e-01
1.339585027160102015e+01 3.055724696442484856e+01 8.687500873208045959e+01 1.451106220483779907e-01 -7.738464325666427612e-02 -9.863845705986022949e-01
1.298837641053756897e+01 2.872205631062388420e+01 6.989207184314727783e+01 5.791217684745788574e-01 -1.567434519529342651e-01 -8.000308871269226074e-01
1.302912378855904763e+01 2.907373039051890373e+01 7.155480003356933594e+01 5.187074542045593262e-01 -2.421765774488449097e-01 -8.199347257614135742e-01
1.306987116658052628e+01 2.942540447041392326e+01 7.321752822399139404e+01 3.971653282642364502e-01 -2.972974479198455811e-01 -8.682591915130615234e-01
1.311061854460200493e+01 2.977707855030894279e+01 7.488025641441345215e+01 3.876590132713317871e-01 -2.949464917182922363e-01 -8.733425140380859375e-01
1.315136592262348358e+01 3.012875263020396233e+01 7.654298460483551025e+01 3.601882457733154297e-01 -2.347029596567153931e-01 -9.028726816177368164e-01
1.319211330064496224e+01 3.048042671009898186e+01 7.820571279525756836e+01 3.437205255031585693e-01 -1.961899846792221069e-01 -9.183494448661804199e-01
1.323286067866644089e+01 3.083210078999400139e+01 7.986844098567962646e+01 3.210940659046173096e-01 -1.534941345453262329e-01 -9.345256686210632324e-01
1.327360805668791954e+01 3.118377486988902092e+01 8.153116917610168457e+01 2.639084458351135254e-01 -5.438188835978507996e-02 -9.630134105682373047e-01
1.331435543470939820e+01 3.153544894978404045e+01 8.319389736652374268e+01 2.835921347141265869e-01 -2.503336966037750244e-02 -9.586181640625000000e-01
1.335510281273087685e+01 3.188712302967905998e+01 8.485662555694580078e+01 2.516780793666839600e-01 1.197932660579681396e-02 -9.677368402481079102e-01
1.339585019075235550e+01 3.223879710957407951e+01 8.651935374736785889e+01 1.704629808664321899e-01 1.083082519471645355e-02 -9.853045344352722168e-01
1.298837632968890432e+01 3.040360645577311516e+01 6.953641685843467712e+01 5.755048394203186035e-01 -1.197411194443702698e-01 -8.089846968650817871e-01
1.302912370771038297e+01 3.075528053566813469e+01 7.119914504885673523e+01 5.452390313148498535e-01 -1.872795671224594116e-01 -8.170928955078125000e-01
1.306987108573186163e+01 3.110695461556315422e+01 7.286187323927879333e+01 4.678597748279571533e-01 -2.870771884918212891e-01 -8.358790874481201172e-01
1.311061846375334028e+01 3.145862869545817375e+01 7.452460142970085144e+01 4.253655970096588135e-01 -3.243604004383087158e-01 -8.448990583419799805e-01
1.315136584177481893e+01 3.181030277535319328e+01 7.618732962012290955e+01 3.438608646392822266e-01 -2.878291606903076172e-01 -8.938199281692504883e-01
1.319211321979629759e+01 3.216197685524821281e+01 7.785005781054496765e+01 3.095614612102508545e-01 -2.402705848217010498e-01 -9.200226664543151855e-01
1.323286059781777624e+01 3.251365093514323235e+01 7.951278600096702576e+01 2.443536818027496338e-01 -1.921575218439102173e-01 -9.504561424255371094e-01
1.327360797583925489e+01 3.286532501503825188e+01 8.117551419138908386e+01 1.758811175823211670e-01 -4.801899939775466919e-02 -9.832395315170288086e-01
1.331435535386073354e+01 3.321699909493327141e+01 8.283824238181114197e+01 2.096398025751113892e-01 3.042934695258736610e-03 -9.777739644050598145e-01
1.335510273188221220e+01 3.356867317482829094e+01 8.450097057223320007e+01 2.587165236473083496e-01 4.307810589671134949e-02 -9.649922251701354980e-01
1.339585010990369085e+01 3.392034725472331047e+01 8.616369876265525818e+01 2.078541815280914307e-01 4.798253253102302551e-02 -9.769822359085083008e-01
1.294762887081876102e+01 3.173348252102732658e+01 6.751803368330001831e+01 5.515742897987365723e-01 -2.828819490969181061e-02 -8.336459398269653320e-01
1.298837624884023967e+01 3.208515660092234612e+01 6.918076187372207642e+01 5.245908498764038086e-01 -6.142532080411911011e-02 -8.491356968879699707e-01
1.302912362686171832e+01 3.243683068081736565e+01 7.084349006414413452e+01 5.077835321426391602e-01 -1.066264063119888306e-01 -8.548606038093566895e-01
1.306987100488319697e+01 3.278850476071238518e+01 7.250621825456619263e+01 4.118756949901580811e-01 -2.057771682739257812e-01 -8.877016305923461914e-01
1.311061838290467563e+01 3.314017884060740471e+01 7.416894644498825073e+01 3.577159345149993896e-01 -2.511183619499206543e-01 -8.994325399398803711e-01
1.315136576092615428e+01 3.349185292050242424e+01 7.583167463541030884e+01 2.742783427238464355e-01 -2.390538454055786133e-01 -9.314637184143066406e-01
1.319211313894763293e+01 3.384352700039744377e+01 7.749440282583236694e+01 2.616644799709320068e-01 -2.219719290733337402e-01 -9.392870068550109863e-01
1.323286051696911159e+01 3.419520108029246330e+01 7.915713101625442505e+01 2.482461631298065186e-01 -2.239091396331787109e-01 -9.424640536308288574e-01
1.327360789499059024e+01 3.454687516018748283e+01 8.081985920667648315e+01 2.490493655204772949e-01 -1.513366699218750000e-01 -9.565937519073486328e-01
1.331435527301206889e+01 3.489854924008250237e+01 8.248258739709854126e+01 2.916532158851623535e-01 -1.264021992683410645e-01 -9.481354355812072754e-01
1.335510265103354755e+01 3.525022331997752190e+01 8.414531558752059937e+01 3.027108311653137207e-01 -8.373047411441802979e-02 -9.493973255157470703e-01
1.339585002905502620e+01 3.560189739987254143e+01 8.580804377794265747e+01 2.357763350009918213e-01 -3.436810523271560669e-02 -9.711993932723999023e-01
1.298837616799157502e+01 3.376670674607157707e+01 6.882510688900947571e+01 4.841925203800201416e-01 8.818376809358596802e-02 -8.705062866210937500e-01
1.302912354601305367e+01 3.411838082596659660e+01 7.048783507943153381e+01 4.706234037876129150e-01 5.315608531236648560e-02 -8.807315230369567871e-01
1.306987092403453232e+01 3.447005490586161613e+01 7.215056326985359192e+01 4.104825258255004883e-01 -1.865584589540958405e-02 -9.116775989532470703e-01
1.311061830205601098e+01 3.482172898575663567e+01 7.381329146027565002e+01 3.537051677703857422e-01 -5.091786012053489685e-02 -9.339699745178222656e-01
1.315136568007748963e+01 3.517340306565165520e+01 7.547601965069770813e+01 2.961532771587371826e-01 -1.043245494365692139e-01 -9.494259357452392578e-01
1.319211305809896828e+01 3.552507714554667473e+01 7.713874784111976624e+01 2.869036495685577393e-01 -1.433724313974380493e-01 -9.471698999404907227e-01
1.323286043612044693e+01 3.587675122544169426e+01 7.880147603154182434e+01 2.874053120613098145e-01 -1.891115307807922363e-01 -9.389541745185852051e-01
1.327360781414192559e+01 3.622842530533671379e+01 8.046420422196388245e+01 2.761628925800323486e-01 -2.099853456020355225e-01 -9.378914237022399902e-01
1.331435519216340424e+01 3.658009938523173332e+01 8.212693241238594055e+01 2.871601581573486328e-01 -2.480474412441253662e-01 -9.252088665962219238e-01
1.335510257018488289e+01 3.693177346512675285e+01 8.378966060280799866e+01 2.402736395597457886e-01 -2.927899062633514404e-01 -9.254959225654602051e-01
1.339584994820636155e+01 3.728344754502177238e+01 8.545238879323005676e+01 1.886406540870666504e-01 -2.108093351125717163e-01 -9.591528773307800293e-01
1.103250194211193502e+01 1.856790105625987053e+01 -1.134150123596191406e+01 5.113479867577552795e-02 -5.443120002746582031e-01 -8.373228907585144043e-01
1.107324932013341368e+01 1.891957513615489006e+01 -9.678773045539855957e+00 6.035738810896873474e-02 -5.430222153663635254e-01 -8.375464081764221191e-01
1.302912346516438902e+01 3.579993097111582756e+01 7.013218009471893311e+01 4.551657140254974365e-01 1.283079832792282104e-01 -8.811136484146118164e-01
1.306987084318586767e+01 3.615160505101084709e+01 7.179490828514099121e+01 4.376476407051086426e-01 1.034894362092018127e-01 -8.931710124015808105e-01
1.311061822120734632e+01 3.650327913090586662e+01 7.345763647556304932e+01 3.836415708065032959e-01 5.563483759760856628e-02 -9.218046665191650391e-01
1.315136559922882498e+01 3.685495321080088615e+01 7.512036466598510742e+01 3.054201304912567139e-01 -3.106105513870716095e-02 -9.517109990119934082e-01
1.319211297725030363e+01 3.720662729069590569e+01 7.678309285640716553e+01 2.928546667098999023e-01 -8.167414367198944092e-02 -9.526623487472534180e-01
1.323286035527178228e+01 3.755830137059092522e+01 7.844582104682922363e+01 3.022679090499877930e-01 -1.419647336006164551e-01 -9.425922632217407227e-01
1.327360773329326094e+01 3.790997545048594475e+01 8.010854923725128174e+01 3.694600462913513184e-01 -1.488255709409713745e-01 -9.172514677047729492e-01
1.331435511131473959e+01 3.826164953038096428e+01 8.177127742767333984e+01 4.016310274600982666e-01 -1.626288294792175293e-01 -9.012459516525268555e-01
1.335510248933621824e+01 3.861332361027598381e+01 8.343400561809539795e+01 3.726711869239807129e-01 -2.321338057518005371e-01 -8.984598517417907715e-01
1.339584986735769689e+01 3.896499769017100334e+01 8.509673380851745605e+01 2.491530627012252808e-01 -2.648446857929229736e-01 -9.315471053123474121e-01
1.343659724537917555e+01 3.931667177006602287e+01 8.675946199893951416e+01 3.959486261010169983e-02 -2.837439179420471191e-01 -9.580822587013244629e-01
1.091025972719883441e+01 1.919442896172404289e+01 -1.668534079194068909e+01 1.886950246989727020e-02 -1.862203478813171387e-01 -9.823267459869384766e-01
1.095100710522031306e+01 1.954610304161906242e+01 -1.502261260151863098e+01 2.533537708222866058e-02 -3.017299771308898926e-01 -9.530567526817321777e-01
1.099175448324179172e+01 1.989777712151408195e+01 -1.335988441109657288e+01 2.402180433273315430e-02 -3.840654790401458740e-01 -9.229933023452758789e-01
1.103250186126327037e+01 2.024945120140910149e+01 -1.169715622067451477e+01 2.523761242628097534e-02 -4.873421788215637207e-01 -8.728463053703308105e-01
1.107324923928474902e+01 2.060112528130412102e+01 -1.003442803025245667e+01 2.729659527540206909e-02 -4.937625229358673096e-01 -8.691682219505310059e-01
1.111399661730622768e+01 2.095279936119914055e+01 -8.371699839830398560e+00 5.009406059980392456e-02 -4.948802590370178223e-01 -8.675160408020019531e-01
1.115474399532770633e+01 2.130447344109416008e+01 -6.708971649408340454e+00 2.837469428777694702e-02 -5.139548182487487793e-01 -8.573477864265441895e-01
1.119549137334918498e+01 2.165614752098917961e+01 -5.046243458986282349e+00 -4.256724379956722260e-03 -4.888979792594909668e-01 -8.723305463790893555e-01
1.123623875137066364e+01 2.200782160088419914e+01 -3.383515268564224243e+00 4.824900999665260315e-03 -4.933456480503082275e-01 -8.698199391365051270e-01
1.127698612939214229e+01 2.235949568077921867e+01 -1.720787078142166138e+00 -1.614228636026382446e-02 -5.083674192428588867e-01 -8.609889745712280273e-01
1.131773350741362094e+01 2.271116976067423820e+01 -5.805888772010803223e-02 -2.652565203607082367e-02 -5.350348353385925293e-01 -8.444134593009948730e-01
1.135848088543509959e+01 2.306284384056925774e+01 1.604669302701950073e+00 -2.743570692837238312e-02 -5.412167906761169434e-01 -8.404354453086853027e-01
1.139922826345657825e+01 2.341451792046427727e+01 3.267397493124008179e+00 -1.049403771758079529e-01 -5.745204091072082520e-01 -8.117350339889526367e-01
1.306987076233720302e+01 3.783315519616007805e+01 7.143925330042839050e+01 4.177667796611785889e-01 1.093052178621292114e-01 -9.019552469253540039e-01
1.311061814035868167e+01 3.818482927605509758e+01 7.310198149085044861e+01 3.765922486782073975e-01 7.885194569826126099e-02 -9.230171442031860352e-01
1.315136551838016032e+01 3.853650335595011711e+01 7.476470968127250671e+01 3.411612808704376221e-01 3.323755785822868347e-02 -9.394170045852661133e-01
1.323286027442311763e+01 3.923985151574015617e+01 7.809016606211662292e+01 3.683854341506958008e-01 -5.273837968707084656e-02 -9.281760454177856445e-01
1.327360765244459628e+01 3.959152559563517570e+01 7.975289425253868103e+01 4.061374366283416748e-01 -9.759300947189331055e-02 -9.085857868194580078e-01
1.331435503046607494e+01 3.994319967553019524e+01 8.141562244296073914e+01 4.196691513061523438e-01 -1.152354627847671509e-01 -9.003324508666992188e-01
1.335510240848755359e+01 4.029487375542521477e+01 8.307835063338279724e+01 3.802713751792907715e-01 -1.877859383821487427e-01 -9.056103825569152832e-01
1.339584978650903224e+01 4.064654783532023430e+01 8.474107882380485535e+01 2.880625128746032715e-01 -2.680563032627105713e-01 -9.193289875984191895e-01
1.343659716453051090e+01 4.099822191521525383e+01 8.640380701422691345e+01 1.429735124111175537e-01 -3.417959213256835938e-01 -9.288348555564880371e-01
1.347734454255198955e+01 4.134989599511027336e+01 8.806653520464897156e+01 9.626774489879608154e-02 -3.661725223064422607e-01 -9.255540370941162109e-01
1.086951226832869111e+01 2.052430502697825432e+01 -1.870372396707534790e+01 2.674769610166549683e-02 -1.240741759538650513e-01 -9.919123649597167969e-01
1.091025964635016976e+01 2.087597910687327385e+01 -1.704099577665328979e+01 7.609065505675971508e-04 -1.225020363926887512e-01 -9.924679398536682129e-01
1.095100702437164841e+01 2.122765318676829338e+01 -1.537826758623123169e+01 -4.458167124539613724e-03 -1.502963155508041382e-01 -9.886310100555419922e-01
1.099175440239312707e+01 2.157932726666331291e+01 -1.371553939580917358e+01 4.273189697414636612e-03 -2.761258184909820557e-01 -9.611120223999023438e-01
1.103250178041460572e+01 2.193100134655833244e+01 -1.205281120538711548e+01 -2.761612087488174438e-02 -3.758473694324493408e-01 -9.262700080871582031e-01
1.107324915843608437e+01 2.228267542645335197e+01 -1.039008301496505737e+01 -2.339244633913040161e-02 -3.679849505424499512e-01 -9.295374751091003418e-01
1.111399653645756302e+01 2.263434950634837151e+01 -8.727354824542999268e+00 1.068751327693462372e-02 -4.209959208965301514e-01 -9.069995284080505371e-01
1.115474391447904168e+01 2.298602358624339104e+01 -7.064626634120941162e+00 -2.839066460728645325e-02 -4.894433617591857910e-01 -8.715727329254150391e-01
1.119549129250052033e+01 2.333769766613841057e+01 -5.401898443698883057e+00 -1.361627411097288132e-02 -4.652095735073089600e-01 -8.850958943367004395e-01
1.123623867052199898e+01 2.368937174603343010e+01 -3.739170253276824951e+00 -1.479352731257677078e-02 -4.745031297206878662e-01 -8.801294565200805664e-01
1.127698604854347764e+01 2.404104582592844963e+01 -2.076442062854766846e+00 1.060697622597217560e-02 -5.228986740112304688e-01 -8.523288369178771973e-01
1.131773342656495629e+01 2.439271990582346916e+01 -4.137138724327087402e-01 1.151884812861680984e-02 -5.159935355186462402e-01 -8.565150499343872070e-01
1.135848080458643494e+01 2.474439398571848869e+01 1.249014317989349365e+00 1.493085920810699463e-02 -5.052487254142761230e-01 -8.628445863723754883e-01
1.139922818260791360e+01 2.509606806561350822e+01 2.911742508411407471e+00 -5.276444554328918457e-02 -5.287570357322692871e-01 -8.471315503120422363e-01
1.143997556062939225e+01 2.544774214550852776e+01 4.574470698833465576e+00 -1.245691329240798950e-01 -6.716713309288024902e-01 -7.303013205528259277e-01
1.148072293865087090e+01 2.579941622540354729e+01 6.237198889255523682e+00 -2.468283474445343018e-01 -6.982822418212890625e-01 -6.719208955764770508e-01
1.323286019357445298e+01 4.092140166088938713e+01 7.773451107740402222e+01 4.636234641075134277e-01 8.242032676935195923e-02 -8.821905255317687988e-01
1.327360757159593163e+01 4.127307574078440666e+01 7.939723926782608032e+01 4.993148148059844971e-01 3.863398358225822449e-02 -8.655588030815124512e-01
1.331435494961741028e+01 4.162474982067942619e+01 8.105996745824813843e+01 4.959607720375061035e-01 -2.092039585113525391e-02 -8.680928945541381836e-01
1.335510232763888894e+01 4.197642390057444572e+01 8.272269564867019653e+01 4.198649227619171143e-01 -1.467583328485488892e-01 -8.956424593925476074e-01
1.339584970566036759e+01 4.232809798046946526e+01 8.438542383909225464e+01 3.269897997379302979e-01 -2.478744387626647949e-01 -9.119407534599304199e-01
1.343659708368184624e+01 4.267977206036448479e+01 8.604815202951431274e+01 1.761061251163482666e-01 -3.890633285045623779e-01 -9.042214155197143555e-01
1.347734446170332490e+01 4.303144614025950432e+01 8.771088021993637085e+01 1.282446682453155518e-01 -4.105338454246520996e-01 -9.027819633483886719e-01
1.082876480945854780e+01 2.185418109223246574e+01 -2.072210714221000671e+01 4.728896543383598328e-02 -1.662654429674148560e-02 -9.987428188323974609e-01
1.086951218748002645e+01 2.220585517212748528e+01 -1.905937895178794861e+01 1.651777885854244232e-02 7.307887542992830276e-03 -9.998368024826049805e-01
1.091025956550150511e+01 2.255752925202250481e+01 -1.739665076136589050e+01 -2.582415752112865448e-02 -3.333198651671409607e-02 -9.991106986999511719e-01
